# .PCD v0.7 - Point Cloud Data file format
VERSION 0.7
FIELDS x y z rgb
SIZE 4 4 4 4
TYPE F F F U
COUNT 1 1 1 1
WIDTH 1111
HEIGHT 1
VIEWPOINT 0 0 0 1 0 0 0
POINTS 1111
DATA ascii
2.8147457 1.3522273 -0.18185888 4294967295
24.557878 13.31166 -1.4639416 4294967295
32.517902 21.983202 -1.5991449 4294967295
0.5774402 0.34778467 -0.18870276 4294967295
2.7734766 1.3205047 -0.035761409 4294967295
1.7265463 0.92809534 -0.24950601 4294967295
52.393108 28.163622 -0.34571588 4294967295
2.0406749 1.2290717 -0.25660455 4294967295
2.7364869 1.3028933 -0.28292176 4294967295
4.7888465 2.8842595 -0.39091527 4294967295
3.7924752 2.0386238 -0.35149455 4294967295
5.3666697 3.600817 -0.41418907 4294967295
32.54467 21.836149 -1.5967026 4294967295
0.57540405 0.34369081 -0.18762445 4294967295
2.8144734 1.3273928 -0.036227055 4294967295
1.729936 0.92176133 -0.24950601 4294967295
2.0417514 1.2195451 -0.25617617 4294967295
2.7376416 1.2911565 -0.28255001 4294967295
4.8096623 2.872828 -0.39175236 4294967295
3.8069577 2.0284603 -0.35214546 4294967295
5.3997679 3.5943959 -0.41572407 4294967295
2.799068 1.3201271 -0.18023098 4294967295
24.892227 13.263319 -1.478177 4294967295
32.567921 21.679079 -1.5939344 4294967295
0.58316761 0.34570917 -0.18978107 4294967295
0.93974507 0.49672973 -0.21259117 4294967295
2.833353 1.3248283 -0.036413312 4294967295
1.7364917 0.91787344 -0.25001109 4294967295
2.0492058 1.2147952 -0.25660455 4294967295
2.7419086 1.2820704 -0.28255001 4294967295
4.8466229 2.8731396 -0.39398456 4294967295
3.8242381 2.0214128 -0.35312185 4294967295
5.4349709 3.5918746 -0.41751486 4294967295
2.7925785 1.3057628 -0.1795333 4294967295
32.536274 21.50264 -1.5888867 4294967295
0.58437085 0.34367126 -0.18978107 4294967295
1.7431997 0.91364789 -0.25051618 4294967295
2.0534339 1.2076341 -0.25660455 4294967295
2.7355261 1.2674676 -0.28143466 4294967295
4.8703809 2.8642941 -0.39510065 4294967295
3.7853665 1.9839908 -0.34889087 4294967295
5.4741802 3.590394 -0.41956151 4294967295
2.7862504 1.29097 -0.17883565 4294967295
30.384722 17.8694 -1.6419903 4294967295
32.561008 21.356047 -1.5864443 4294967295
2.8291695 1.310856 -0.10888643 4294967295
0.57891256 0.3377476 -0.18762445 4294967295
0.92578763 0.48111391 -0.20866881 4294967295
2.8425324 1.3050169 -0.036413312 4294967295
1.2153559 0.70905966 -0.21890788 4294967295
1.7534196 0.91121823 -0.25152633 4294967295
2.0645063 1.2044686 -0.25746131 4294967295
2.7363136 1.2562515 -0.28106287 4294967295
4.8872414 2.8513012 -0.39565873 4294967295
3.873632 2.0130515 -0.35637641 4294967295
5.5268235 3.5973988 -0.42263144 4294967295
2.7943678 1.2829043 -0.17906819 4294967295
30.619469 17.863928 -1.6512966 4294967295
27.529875 14.306743 -1.6259736 4294967295
32.581749 21.207397 -1.5838389 4294967295
2.8264613 1.2976387 -0.10860724 4294967295
0.58675581 0.33958349 -0.18978107 4294967295
2.8288667 1.2868052 -0.036180489 4294967295
1.210982 0.70085293 -0.21767806 4294967295
1.7495352 0.90145659 -0.25051618 4294967295
2.0824668 1.2052226 -0.25917488 4294967295
2.7443075 1.2483405 -0.28143466 4294967295
4.9109797 2.8422174 -0.39677483 4294967295
3.8877232 2.0031683 -0.35702732 4294967295
5.5594664 3.5910783 -0.42416644 4294967295
2.802464 1.2747949 -0.17930076 4294967295
30.875305 17.869007 -1.6617196 4294967295
27.29558 14.064181 -1.6092261 4294967295
32.571655 21.039312 -1.5797683 4294967295
2.8309741 1.2877637 -0.10860724 4294967295
0.58459687 0.33561558 -0.18870276 4294967295
0.94309574 0.48177642 -0.21180668 4294967295
2.8260481 1.2736366 -0.03608736 4294967295
1.2099932 0.69465399 -0.21706316 4294967295
1.7491376 0.89353943 -0.25001109 4294967295
2.0866609 1.1979465 -0.25917488 4294967295
2.7631721 1.2452998 -0.28292176 4294967295
4.9693174 2.8528724 -0.4006812 4294967295
3.9053428 1.9950275 -0.35800371 4294967295
5.5988526 3.5888853 -0.42621309 4294967295
2.8068967 1.2650055 -0.17930076 4294967295
31.207773 17.916302 -1.6762372 4294967295
32.570869 20.878048 -1.5761861 4294967295
0.59245932 0.337385 -0.19085935 4294967295
0.95177025 0.48202556 -0.21337563 4294967295
2.8487382 1.2719165 -0.03632018 4294967295
1.7664057 0.89459902 -0.25203139 4294967295
2.0908298 1.1906549 -0.25917488 4294967295
2.7675025 1.2356461 -0.28292176 4294967295
5.0104532 2.8532789 -0.4031924 4294967295
3.9300666 1.9903886 -0.35963097 4294967295
5.6315551 3.5821724 -0.42774805 4294967295
2.8076494 1.253571 -0.17906819 4294967295
31.422899 17.894247 -1.6844267 4294967295
32.582851 20.725607 -1.5732552 4294967295
0.58357203 0.32963145 -0.18762445 4294967295
1.7730639 0.89020759 -0.25253645 4294967295
2.1018994 1.1872607 -0.26003167 4294967295
2.7717991 1.2259777 -0.28292176 4294967295
5.0586009 2.8573575 -0.40626171 4294967295
3.9441164 1.9802344 -0.36028188 4294967295
5.674407 3.5816679 -0.43005055 4294967295
2.8156602 1.2453775 -0.17930076 4294967295
31.509533 17.798203 -1.6857295 4294967295
32.587406 20.569069 -1.5699985 4294967295
0.584719 0.32759252 -0.18762445 4294967295
1.7690556 0.88047731 -0.25152633 4294967295
2.1094999 1.1818607 -0.26046005 4294967295
2.7724137 1.2146971 -0.28255001 4294967295
5.0755053 2.8435841 -0.40681976 4294967295
2.7874744 1.3873549 -0.25418264 4294967295
5.7105546 3.5766721 -0.43184134 4294967295
2.8273051 1.2387471 -0.17976587 4294967295
33.802414 18.938017 -1.8048493 4294967295
31.383629 15.619957 -1.8372015 4294967295
32.611584 20.425501 -1.5677189 4294967295
0.59921074 0.33324236 -0.19193766 4294967295
1.782487 0.88018537 -0.25304154 4294967295
2.1132028 1.175227 -0.26046005 4294967295
2.7981339 1.2155013 -0.28478065 4294967295
5.1332364 2.8547747 -0.41072613 4294967295
2.7810957 1.3732947 -0.25320625 4294967295
5.7353225 3.5671451 -0.43286467 4294967295
32.639553 18.152014 -1.7397056 4294967295
31.690434 15.648618 -1.8522744 4294967295
32.641659 20.301828 -1.5660906 4294967295
0.59368175 0.32732445 -0.18978107 4294967295
0.96184897 0.47058058 -0.21416008 4294967295
1.7892653 0.87539053 -0.2535466 4294967295
2.131427 1.1751552 -0.26217359 4294967295
2.7952526 1.2020912 -0.28403711 4294967295
5.1890912 2.8609881 -0.41435343 4294967295
2.7789481 1.3595886 -0.25255534 4294967295
5.775537 3.5628679 -0.43491131 4294967295
13.998607 6.0200648 -0.88743407 4294967295
31.632753 15.476192 -1.8455752 4294967295
32.855309 20.268095 -1.5727667 4294967295
0.59138447 0.32350543 -0.18870276 4294967295
0.94928831 0.46054041 -0.21102223 4294967295
1.788588 0.86772066 -0.25304154 4294967295
2.1283336 1.1642637 -0.26131681 4294967295
2.8175428 1.2006222 -0.28589597 4294967295
5.216053 2.8533409 -0.4157486 4294967295
5.8315754 3.570796 -0.4382371 4294967295
14.095636 6.0064869 -0.89231777 4294967295
34.73204 18.999489 -1.8441216 4294967295
33.447239 20.480448 -1.5978423 4294967295
0.58912432 0.31960249 -0.18762445 4294967295
1.8059099 0.86835039 -0.25506181 4294967295
2.1428716 1.1625172 -0.262602 4294967295
2.8327241 1.1954257 -0.2870113 4294967295
5.2575464 2.8522418 -0.41825983 4294967295
2.7809513 1.3371875 -0.25190443 4294967295
5.8747072 3.5690734 -0.44053957 4294967295
14.212172 5.9976177 -0.89836419 4294967295
34.864868 18.914343 -1.8476578 4294967295
33.603912 20.415455 -1.6019131 4294967295
0.59707695 0.32108942 -0.18978107 4294967295
1.8019166 0.85831153 -0.25405169 4294967295
2.1506217 1.1565373 -0.26303038 4294967295
2.8444374 1.1881033 -0.28775486 4294967295
5.2785106 2.8386188 -0.41909689 4294967295
2.8002319 1.3338417 -0.25320625 4294967295
5.9151053 3.5639939 -0.44258621 4294967295
14.491992 6.0532126 -0.91464311 4294967295
33.281425 20.052862 -1.5830249 4294967295
2.7947016 1.3198556 -0.089947939 4294967295
0.59813833 0.3191078 -0.18978107 4294967295
0.96115249 0.45392412 -0.21259117 4294967295
1.8191048 0.85910982 -0.25607198 4294967295
2.8392398 1.3408897 -0.018249409 4294967295
2.1579535 1.1512717 -0.26345876 4294967295
3.0581243 1.2654657 -0.3089461 4294967295
5.3125377 2.8342476 -0.42105007 4294967295
2.7794046 1.3126314 -0.25092804 4294967295
5.9680018 3.5689456 -0.44565618 4294967295
14.725994 6.0936828 -0.9281314 4294967295
38.197086 20.378208 -2.0166588 4294967295
2.7739928 1.3100755 -0.16077606 4294967295
33.430061 19.991627 -1.5869328 4294967295
2.8427472 1.3304305 -0.091344275 4294967295
0.60605812 0.32062054 -0.19193766 4294967295
0.9520734 0.44557869 -0.21023774 4294967295
1.825686 0.85443705 -0.25657704 4294967295
2.8692627 1.34284 -0.018412145 4294967295
2.1619589 1.1437325 -0.26345876 4294967295
5.3294525 2.8194189 -0.42160812 4294967295
2.7731369 1.2978523 -0.24995168 4294967295
6.0044546 3.5623505 -0.44744697 4294967295
14.998441 6.145195 -0.94394517 4294967295
38.116116 20.164417 -2.0086555 4294967295
2.7930202 1.307158 -0.16161345 4294967295
33.472137 19.858505 -1.5856302 4294967295
0.60035163 0.31492421 -0.18978107 4294967295
1.8178586 0.8430503 -0.25506181 4294967295
2.1694603 1.1380258 -0.26388717 4294967295
3.3510604 1.3593614 -0.33757287 4294967295
5.3533969 2.8082116 -0.42272425 4294967295
2.7776508 1.2881637 -0.24995168 4294967295
6.0546961 3.5636408 -0.45026112 4294967295
15.023504 6.0943012 -0.94417781 4294967295
38.119049 19.995968 -2.0051193 4294967295
2.8156855 1.3058027 -0.16266017 4294967295
33.324265 19.613817 -1.5753719 4294967295
2.8301671 1.3005364 -0.090646103 4294967295
0.61169893 0.31815937 -0.19301596 4294967295
1.8280008 0.84001464 -0.25607198 4294967295
2.8567593 1.3127563 -0.018272657 4294967295
2.1840036 1.1359529 -0.2651723 4294967295
3.3446965 1.3432053 -0.33645755 4294967295
5.3808651 2.7987177 -0.42411938 4294967295
2.7857521 1.2801267 -0.25027713 4294967295
6.1153564 3.5706668 -0.45384273 4294967295
15.233665 6.1177268 -0.95603812 4294967295
38.131882 19.833313 -2.0021412 4294967295
33.357998 19.477245 -1.5737437 4294967295
2.8239982 1.285184 -0.090297014 4294967295
0.61970878 0.31944457 -0.19517256 4294967295
0.96033347 0.43704179 -0.21102223 4294967295
1.8310682 0.83330774 -0.25607198 4294967295
2.8506308 1.2973044 -0.018202916 4294967295
2.188153 1.127939 -0.2651723 4294967295
3.3644032 1.3368176 -0.33794466 4294967295
5.4052758 2.7862864 -0.42523545 4294967295
2.7904265 1.2699058 -0.25027713 4294967295
6.1836782 3.5802264 -0.45793602 4294967295
15.378453 6.1105003 -0.96371245 4294967295
38.175919 19.678743 -2.0006523 4294967295
33.543316 19.420912 -1.5791171 4294967295
2.8357561 1.2786075 -0.090529747 4294967295
0.60367012 0.30851522 -0.18978107 4294967295
1.8484341 0.83343613 -0.25809225 4294967295
2.8514946 1.2857038 -0.018179668 4294967295
2.1956174 1.1221052 -0.26560068 4294967295
3.3727543 1.3265256 -0.33831644 4294967295
5.4220734 2.7710366 -0.4257935 4294967295
2.7912066 1.2585206 -0.24995168 4294967295
6.2619047 3.5963972 -0.46279681 4294967295
15.418266 6.0641012 -0.96487528 4294967295
38.230133 19.538116 -1.9999077 4294967295
2.8330686 1.2773957 -0.16286951 4294967295
33.836166 19.433111 -1.5897009 4294967295
2.8436313 1.2708273 -0.090646103 4294967295
0.61156142 0.30999458 -0.19193766 4294967295
1.8439425 0.82406342 -0.2570821 4294967295
2.8666983 1.2811359 -0.018249409 4294967295
2.2099688 1.1202118 -0.26688588 4294967295
3.3956907 1.3225598 -0.3401753 4294967295
5.4668241 2.7710805 -0.42858377 4294967295
2.8026447 1.2525103 -0.2506026 4294967295
6.3015418 3.5914228 -0.46484342 4294967295
15.464337 6.0230784 -0.96650314 4294967295
38.273335 19.400383 -1.998791 4294967295
33.876118 19.306936 -1.5885611 4294967295
2.8480504 1.2608927 -0.090646103 4294967295
0.60919803 0.30612823 -0.19085935 4294967295
1.8431798 0.81601506 -0.25657704 4294967295
2.2103124 1.1107045 -0.26645747 4294967295
3.4077196 1.3135628 -0.34091887 4294967295
5.5085535 2.7681043 -0.431095 4294967295
2.8106456 1.2443328 -0.25092804 4294967295
6.3592157 3.5949407 -0.46816921 4294967295
16.427952 6.3324294 -1.0253398 4294967295
38.365818 19.279215 -2.0000937 4294967295
34.406048 19.450151 -1.6102175 4294967295
0.60686785 0.30217659 -0.18978107 4294967295
1.8606949 0.8156265 -0.25859734 4294967295
2.2143681 1.1025963 -0.26645747 4294967295
3.4125109 1.3010647 -0.34091887 4294967295
5.5615249 2.7692399 -0.43444332 4294967295
2.82249 1.2372247 -0.25157899 4294967295
6.3967237 3.5852721 -0.46996006 4294967295
16.61149 6.3333497 -1.0353397 4294967295
38.45768 19.149162 -2.0012107 4294967295
34.142406 19.136332 -1.5945857 4294967295
0.60090715 0.29685655 -0.18762445 4294967295
0.97486216 0.42368019 -0.21259117 4294967295
1.8632478 0.8097772 -0.25859734 4294967295
2.2213867 1.0973961 -0.26688588 4294967295
3.4203069 1.2917454 -0.34129065 4294967295
5.5737748 2.7535226 -0.43472236 4294967295
2.8336751 1.2315301 -0.2522299 4294967295
6.4707437 3.6000934 -0.474565 4294967295
16.762053 6.3305149 -1.0434792 4294967295
38.524811 19.031796 -2.0015829 4294967295
39.115086 16.99962 -2.2351642 4294967295
0.60199118 0.29465199 -0.18762445 4294967295
1.8698484 0.80451047 -0.2591024 4294967295
2.228966 1.0909948 -0.26731426 4294967295
3.4399426 1.2847738 -0.34277776 4294967295
5.6232538 2.7523706 -0.43779165 4294967295
2.8638053 1.2321649 -0.25450811 4294967295
6.5153546 3.5937028 -0.47686747 4294967295
16.931038 6.3235221 -1.0525489 4294967295
38.590721 18.888702 -2.0013967 4294967295
39.136772 16.838768 -2.2328615 4294967295
0.61693078 0.29916623 -0.19193766 4294967295
1.8654834 0.79454154 -0.25809225 4294967295
2.2365286 1.0845526 -0.26774263 4294967295
3.4408927 1.2707764 -0.34240597 4294967295
2.7933149 1.3545532 -0.21708216 4294967295
6.5705118 3.5927782 -0.4799374 4294967295
17.085211 6.3098397 -1.0606884 4294967295
38.648914 18.741894 -2.0008385 4294967295
39.18721 16.690508 -2.2322333 4294967295
0.60051167 0.28887767 -0.18654616 4294967295
1.8825922 0.79485101 -0.26011255 4294967295
2.2470922 1.0809696 -0.26859942 4294967295
3.4673097 1.268169 -0.34463662 4294967295
4.293498 1.8127617 -0.38046029 4294967295
6.6098328 3.5873528 -0.48198405 4294967295
17.363716 6.3507814 -1.0767348 4294967295
39.210007 16.554893 -2.2305586 4294967295
0.61552656 0.29319578 -0.19085935 4294967295
0.9735871 0.40666178 -0.21102223 4294967295
1.8856301 0.78761697 -0.26011255 4294967295
2.2548163 1.0740441 -0.2690278 4294967295
3.4721532 1.2548472 -0.34463662 4294967295
2.7954974 1.3315885 -0.21652409 4294967295
4.2930684 1.7931902 -0.37980938 4294967295
6.66223 3.5827453 -0.48479819 4294967295
17.485613 6.3193555 -1.0827812 4294967295
39.251163 16.394987 -2.2293026 4294967295
2.8448887 1.3551152 -0.073325418 4294967295
0.61296189 0.28961521 -0.18978107 4294967295
1.8880951 0.78168958 -0.26011255 4294967295
2.2617753 1.0686545 -0.26945618 4294967295
3.4798279 1.2452754 -0.3450084 4294967295
2.7924511 1.3193909 -0.21596605 4294967295
4.3207822 1.7888454 -0.38176215 4294967295
6.7227545 3.5881126 -0.48837981 4294967295
17.599373 6.2980318 -1.0885952 4294967295
39.265568 16.256325 -2.2272093 4294967295
0.61401951 0.28736621 -0.18978107 4294967295
2.8403285 1.3292972 0 4294967295
1.8872764 0.77325821 -0.25960746 4294967295
2.2728817 1.0637275 -0.27031296 4294967295
3.4993885 1.2378228 -0.34649551 4294967295
2.7936554 1.3074538 -0.21568702 4294967295
4.3162436 1.768459 -0.38078576 4294967295
6.7782054 3.5858438 -0.49144977 4294967295
17.949867 6.3493247 -1.1088275 4294967295
2.8155384 1.3176953 -0.14480487 4294967295
39.306416 16.104694 -2.2261624 4294967295
0.60802984 0.28198037 -0.18762445 4294967295
1.8899636 0.76666701 -0.25960746 4294967295
2.2874038 1.0608082 -0.27159813 4294967295
3.5074465 1.2269176 -0.34686729 4294967295
2.7982013 1.297696 -0.21568702 4294967295
4.3334723 1.7578806 -0.38176215 4294967295
6.8083539 3.5714376 -0.49272895 4294967295
18.284769 6.3960786 -1.1281297 4294967295
2.8092456 1.3028179 -0.14424649 4294967295
39.35128 15.962915 -2.2255344 4294967295
2.8332973 1.3139721 -0.072674051 4294967295
0.6265108 0.28789791 -0.19301596 4294967295
1.0045801 0.40343145 -0.21651351 4294967295
2.8604429 1.3144476 0 4294967295
1.8963104 0.76154333 -0.26011255 4294967295
2.2802522 1.047835 -0.27031296 4294967295
3.5267637 1.2198733 -0.3483544 4294967295
2.7954628 1.2845875 -0.21512896 4294967295
4.3654795 1.7531421 -0.38404036 4294967295
6.8774419 3.5771201 -0.49682224 4294967295
18.507 6.4013915 -1.1404551 4294967295
39.369694 15.810559 -2.2234409 4294967295
2.8305998 1.3007338 -0.07248795 4294967295
0.61344057 0.27943155 -0.18870276 4294967295
1.9061998 0.7581833 -0.2611227 4294967295
2.2909529 1.0435641 -0.27116975 4294967295
3.5458627 1.2133281 -0.34984151 4294967295
2.7997077 1.2753096 -0.21512896 4294967295
4.3786783 1.7416017 -0.38469124 4294967295
6.9353848 3.5780849 -0.500148 4294967295
18.671698 6.3891068 -1.1492922 4294967295
39.395931 15.669573 -2.2219756 4294967295
2.8312588 1.2896817 -0.072394893 4294967295
0.62499416 0.28193313 -0.19193766 4294967295
0.99642235 0.39209956 -0.21416008 4294967295
2.8586111 1.2895116 0 4294967295
1.9089657 0.75119209 -0.2611227 4294967295
2.2983873 1.0367961 -0.27159813 4294967295
3.5389669 1.1964979 -0.34872615 4294967295
2.8043628 1.2650403 -0.21512896 4294967295
4.3850317 1.7255424 -0.38469124 4294967295
6.9839945 3.5708151 -0.50270635 4294967295
18.834953 6.3679547 -1.1578968 4294967295
2.8190925 1.2716848 -0.14406036 4294967295
39.434509 15.517771 -2.2209289 4294967295
2.8396113 1.2809409 -0.07248795 4294967295
0.61532825 0.27524984 -0.18870276 4294967295
1.9150128 0.74663287 -0.26162776 4294967295
2.3088937 1.0328188 -0.27245492 4294967295
3.5578156 1.1904294 -0.35021326 4294967295
2.8192501 1.2611125 -0.21596605 4294967295
4.4127173 1.7204479 -0.38664401 4294967295
7.0699339 3.5867846 -0.50807875 4294967295
19.104797 6.3923812 -1.1732455 4294967295
2.8230734 1.2628226 -0.14406036 4294967295
39.471901 15.389462 -2.2203009 4294967295
2.8472717 1.2736472 -0.072581001 4294967295
0.61628544 0.27310011 -0.18870276 4294967295
1.9176075 0.73994315 -0.26162776 4294967295
2.319757 1.0279748 -0.27331167 4294967295
3.5695126 1.1805034 -0.35095683 4294967295
2.8272836 1.2528796 -0.21624507 4294967295
4.4261351 1.7079034 -0.38729492 4294967295
7.1680007 3.6051288 -0.51421863 4294967295
19.19145 6.3469648 -1.177199 4294967295
39.517921 15.248697 -2.219882 4294967295
0.61370784 0.26939905 -0.18762445 4294967295
0.98201919 0.37499684 -0.21023774 4294967295
1.9238858 0.73466092 -0.26213285 4294967295
2.3269727 1.0214702 -0.27374008 4294967295
3.5773969 1.1692742 -0.35132861 4294967295
2.8389468 1.2462112 -0.21680312 4294967295
4.4469671 1.6981325 -0.38859674 4294967295
7.2126913 3.596117 -0.5165211 4294967295
19.695534 6.4374962 -1.2067336 4294967295
39.574646 15.112095 -2.2200916 4294967295
0.62180364 0.27011019 -0.18978107 4294967295
1.9266922 0.72726882 -0.26213285 4294967295
2.3272297 1.0109437 -0.27331167 4294967295
3.5932307 1.1591986 -0.35244393 4294967295
2.86567 1.244841 -0.21847728 4294967295
4.4571838 1.6824539 -0.38892221 4294967295
7.222867 3.5666306 -0.51626533 4294967295
19.932924 6.4304857 -1.2197567 4294967295
39.308887 17.075699 -1.9963714 4294967295
39.594997 14.94593 -2.217998 4294967295
0.62264931 0.26815495 -0.18978107 4294967295
1.0176786 0.38049406 -0.21729797 4294967295
1.9326847 0.72260046 -0.26263791 4294967295
2.3377001 1.0067719 -0.27416846 4294967295
3.6158261 1.1539561 -0.35430282 4294967295
6.0616403 2.6105525 -0.46150881 4294967295
4.4885888 1.6782129 -0.39120039 4294967295
20.398123 6.5098648 -1.2469659 4294967295
39.413727 16.974218 -1.9989772 4294967295
39.64925 14.824232 -2.2184167 4294967295
0.61649525 0.26295775 -0.18762445 4294967295
1.9389164 0.71722776 -0.263143 4294967295
2.3448579 1.0001676 -0.27459687 4294967295
3.62363 1.1425275 -0.35467461 4294967295
6.1147585 2.6081681 -0.46485716 4294967295
4.4906797 1.6611547 -0.39087498 4294967295
20.538778 6.4758592 -1.2541751 4294967295
39.553581 16.871048 -2.0030718 4294967295
39.685764 14.680225 -2.2175794 4294967295
0.62455201 0.26369309 -0.18978107 4294967295
1.9378054 0.70875388 -0.26263791 4294967295
2.3558352 0.99466085 -0.27545363 4294967295
3.6315954 1.1304229 -0.35504636 4294967295
6.1794167 2.6090212 -0.46904254 4294967295
4.5004816 1.6460546 -0.39120039 4294967295
20.703449 6.4444551 -1.2627796 4294967295
39.467907 16.663805 -1.9956268 4294967295
39.728046 14.530563 -2.2169514 4294967295
2.8122613 1.3407784 -0.054381698 4294967295
0.62546879 0.26151121 -0.18978107 4294967295
1.9439993 0.70333481 -0.263143 4294967295
2.3592932 0.98643076 -0.27545363 4294967295
3.6469402 1.1212498 -0.35616171 4294967295
6.2437086 2.6105218 -0.47322792 4294967295
4.517447 1.6344028 -0.39217678 4294967295
2.7961211 1.3330834 -0.19852422 4294967295
20.783073 6.3897448 -1.2662679 4294967295
39.477917 16.50589 -1.9932072 4294967295
39.722187 14.371403 -2.2138112 4294967295
2.8130765 1.3297352 -0.05431189 4294967295
0.61921519 0.25648734 -0.18762445 4294967295
1.946321 0.6968838 -0.263143 4294967295
2.3625517 0.97860092 -0.27545363 4294967295
3.6506388 1.109149 -0.35616171 4294967295
6.2928839 2.6065979 -0.47629723 4294967295
4.5228424 1.6194121 -0.39217678 4294967295
2.7860911 1.3169793 -0.1975009 4294967295
21.102171 6.4113307 -1.2844074 4294967295
39.558281 16.385576 -1.9945102 4294967295
39.747063 14.231509 -2.2125549 4294967295
0.63079822 0.25870901 -0.19085935 4294967295
1.9562225 0.69273418 -0.26415312 4294967295
2.3733127 0.97336572 -0.27631041 4294967295
3.6735618 1.1021204 -0.35802057 4294967295
6.3167119 2.5906703 -0.4774133 4294967295
4.5472584 1.6102674 -0.39380407 4294967295
2.8015163 1.3123252 -0.19826838 4294967295
21.87026 6.5613871 -1.3297558 4294967295
39.655907 16.264061 -1.9965575 4294967295
39.954647 14.148671 -2.2213476 4294967295
2.8013177 1.3122323 -0.12602976 4294967295
0.62817299 0.25494692 -0.18978107 4294967295
1.9587481 0.68556005 -0.26415312 4294967295
2.3879189 0.96914792 -0.27759555 4294967295
3.6813953 1.0897801 -0.35839236 4294967295
6.3557425 2.5795074 -0.47964552 4294967295
4.5380783 1.5883232 -0.39250225 4294967295
2.7918227 1.2953287 -0.19724506 4294967295
39.785587 16.147163 -2.0000937 4294967295
39.927059 13.974434 -2.2169514 4294967295
2.8234398 1.2980409 -0.054242078 4294967295
0.62191069 0.24988054 -0.18762445 4294967295
1.9573793 0.67742127 -0.26364806 4294967295
2.3986681 0.96377259 -0.27845234 4294967295
3.6928225 1.0791579 -0.3591359 4294967295
6.379518 2.5632577 -0.48076162 4294967295
4.5624318 1.5789928 -0.39412954 4294967295
2.7890735 1.2822413 -0.19673342 4294967295
5.1744456 1.5121344 -0.31395072 4294967295
39.774979 15.981382 -1.9967437 4294967295
39.881222 13.802325 -2.2117178 4294967295
2.8070042 1.2904848 -0.12586693 4294967295
2.8315935 1.2898345 -0.05431189 4294967295
0.62993759 0.25055522 -0.18978107 4294967295
1.3441746 0.53464019 -0.22505699 4294967295
1.9634866 0.67186874 -0.26415312 4294967295
2.4020178 0.9553932 -0.27845234 4294967295
3.6927402 1.0651563 -0.35876411 4294967295
6.4440432 2.5630929 -0.484947 4294967295
4.5867758 1.5695099 -0.39575684 4294967295
2.8007979 1.2758067 -0.19724506 4294967295
39.938194 15.885261 -2.0021412 4294967295
39.929161 13.66302 -2.2117178 4294967295
5.2045131 1.5012212 -0.18915527 4294967295
2.8285646 1.2771463 -0.05417227 4294967295
0.62718099 0.24705328 -0.18870276 4294967295
1.9657036 0.66535425 -0.26415312 4294967295
2.4051726 0.9474231 -0.27845234 4294967295
3.7000821 1.0539967 -0.3591359 4294967295
6.4413686 2.5373237 -0.48410994 4294967295
4.5995078 1.5568482 -0.39640775 4294967295
2.8013747 1.2648696 -0.19698924 4294967295
5.1462135 1.4659382 -0.31162518 4294967295
39.745281 15.65609 -1.9898571 4294967295
2.8439586 1.2721636 -0.054381698 4294967295
0.64598364 0.25185838 -0.19409427 4294967295
1.9755403 0.66100621 -0.26516327 4294967295
2.4195812 0.94335496 -0.27973753 4294967295
3.7152412 1.0443068 -0.36025125 4294967295
6.4427519 2.5119231 -0.48355186 4294967295
4.6124759 1.5433121 -0.39705864 4294967295
2.816705 1.2599726 -0.19775674 4294967295
5.1512995 1.4479643 -0.31162518 4294967295
39.814583 15.523052 -1.9906015 4294967295
5.1876721 1.4581882 -0.18817809 4294967295
0.62889045 0.2426687 -0.18870276 4294967295
1.024087 0.33868444 -0.21572903 4294967295
1.9816027 0.65535259 -0.26566836 4294967295
2.4228592 0.9349038 -0.27973753 4294967295
3.7227015 1.0323969 -0.360623 4294967295
6.4738164 2.4980385 -0.48522604 4294967295
4.6367602 1.5334622 -0.39868593 4294967295
2.8283846 1.2533679 -0.19826838 4294967295
5.1447783 1.4267737 -0.31092748 4294967295
39.894615 15.394055 -1.9919044 4294967295
5.1927304 1.4400719 -0.18817809 4294967295
0.64052922 0.24459419 -0.19193766 4294967295
1.025263 0.33510739 -0.21572903 4294967295
1.9876502 0.64966375 -0.26617342 4294967295
2.4261081 0.92644006 -0.27973753 4294967295
3.7531736 1.0267514 -0.36322546 4294967295
6.5197744 2.4896586 -0.48801628 4294967295
4.6572433 1.5222207 -0.39998779 4294967295
2.8473635 1.2499044 -0.19929171 4294967295
5.1574311 1.4109125 -0.31139264 4294967295
40.00037 15.274648 -1.9945102 4294967295
40.299793 13.171994 -2.2219756 4294967295
5.1938701 1.420881 -0.1880385 4294967295
0.65579194 0.24780349 -0.19625087 4294967295
1.0301588 0.33273277 -0.21651351 4294967295
1.3643031 0.51552796 -0.22690171 4294967295
1.9823533 0.64028382 -0.26516327 4294967295
2.4367671 0.92077887 -0.28059429 4294967295
3.7490439 1.0115716 -0.36248189 4294967295
6.5545526 2.4767628 -0.48996946 4294967295
4.6587334 1.5047326 -0.39966232 4294967295
8.3281593 3.6211917 -0.58201367 4294967295
5.1700344 1.3949851 -0.31185773 4294967295
40.242889 12.998121 -2.2163234 4294967295
0.63500518 0.23741889 -0.18978107 4294967295
1.3734988 0.51353055 -0.22813153 4294967295
1.992137 0.63577247 -0.26617342 4294967295
2.4399667 0.91226685 -0.28059429 4294967295
3.7564013 0.999502 -0.36285368 4294967295
6.6192222 2.4748275 -0.49415484 4294967295
4.6905441 1.4969447 -0.40194052 4294967295
8.410409 3.6220968 -0.58687443 4294967295
23.840691 6.343523 -1.4367316 4294967295
40.318459 12.867271 -2.217998 4294967295
0.64301383 0.23798561 -0.19193766 4294967295
1.9980185 0.63035613 -0.26667848 4294967295
2.4541678 0.90831119 -0.28187945 4294967295
3.7673998 0.98906136 -0.36359721 4294967295
6.6199088 2.4500918 -0.49359679 4294967295
4.710691 1.4861789 -0.40324238 4294967295
8.4994764 3.6270869 -0.59224683 4294967295
14.394978 3.7791362 -0.86673659 4294967295
40.309177 14.918814 -2.0021412 4294967295
40.532337 12.787573 -2.2274184 4294967295
0.64384067 0.23573977 -0.19193766 4294967295
2.0077832 0.62573957 -0.26768866 4294967295
2.4610579 0.90110683 -0.28230783 4294967295
3.7862515 0.97989696 -0.36508432 4294967295
6.6246743 2.4255989 -0.49331778 4294967295
4.7272682 1.4732859 -0.40421873 4294967295
8.5635614 3.6191525 -0.59582847 4294967295
40.599609 12.65315 -2.2286747 4294967295
0.65556616 0.23731156 -0.19517256 4294967295
2.0100632 0.61837596 -0.26768866 4294967295
2.4718232 0.89478719 -0.28316462 4294967295
3.7898178 0.966012 -0.36508432 4294967295
6.686048 2.4203148 -0.49722415 4294967295
4.7364464 1.4571208 -0.40454417 4294967295
8.6209602 3.6062248 -0.59889847 4294967295
14.406174 3.672086 -0.8658064 4294967295
40.489178 12.456093 -2.2200916 4294967295
0.64913756 0.23242496 -0.19301596 4294967295
2.0046163 0.6090492 -0.26667848 4294967295
2.4749312 0.886154 -0.28316462 4294967295
3.8124802 0.95762926 -0.36694321 4294967295
6.7207522 2.4063783 -0.49917731 4294967295
4.7643919 1.4475335 -0.40649694 4294967295
8.6888151 3.5990262 -0.60273594 4294967295
24.457527 6.1433091 -1.4685918 4294967295
40.425392 12.282178 -2.2142298 4294967295
0.64631385 0.22887197 -0.19193766 4294967295
1.0331442 0.30995849 -0.21572903 4294967295
2.0219321 0.60660946 -0.26869878 4294967295
2.4817584 0.8788377 -0.28359303 4294967295
3.8157995 0.94431621 -0.36694321 4294967295
6.7554402 2.3922293 -0.50113052 4294967295
4.7732339 1.4320405 -0.40682238 4294967295
8.7641096 3.5944266 -0.60708505 4294967295
24.754038 6.1260133 -1.4851032 4294967295
40.582798 12.175437 -2.2205102 4294967295
0.64343405 0.22545354 -0.19085935 4294967295
1.3875976 0.48620176 -0.22874644 4294967295
2.0239327 0.59990054 -0.26869878 4294967295
2.4884124 0.87191743 -0.28402141 4294967295
3.8227789 0.93260026 -0.36731499 4294967295
6.8122916 2.386966 -0.50475788 4294967295
4.7894235 1.4196013 -0.40779877 4294967295
8.7944727 3.572854 -0.60836416 4294967295
24.781975 6.0457788 -1.4855684 4294967295
40.768482 12.083917 -2.2284653 4294967295
0.64785677 0.22446735 -0.19193766 4294967295
2.0260143 0.59283245 -0.26869878 4294967295
2.4989562 0.86583042 -0.28487816 4294967295
3.8298836 0.92018175 -0.36768675 4294967295
6.8507442 2.3736241 -0.50699002 4294967295
4.8249602 1.4118326 -0.41040242 4294967295
8.9550304 3.6017172 -0.61859739 4294967295
16.998627 4.0841517 -1.0181307 4294967295
40.59956 11.879845 -2.2169514 4294967295
0.6559245 0.22470103 -0.19409427 4294967295
2.031884 0.58685726 -0.26920387 4294967295
2.5019636 0.85710144 -0.28487816 4294967295
3.8408244 0.90864015 -0.36843032 4294967295
6.8778639 2.3561602 -0.50838518 4294967295
4.8260293 1.3938742 -0.41007698 4294967295
9.0380135 3.5984895 -0.62345815 4294967295
5.217864 1.4873309 -0.15790343 4294967295
0.65670496 0.22240992 -0.19409427 4294967295
2.0339203 0.57976067 -0.26920387 4294967295
2.5087075 0.84963793 -0.28530654 4294967295
3.8633671 0.89974338 -0.37028921 4294967295
6.9125028 2.3410959 -0.51033837 4294967295
4.8462014 1.38139 -0.4113788 4294967295
9.1470795 3.6049719 -0.63010973 4294967295
17.015059 3.9626536 -1.0174329 4294967295
0.65382451 0.2188938 -0.19301596 4294967295
2.0397511 0.57373321 -0.26970893 4294967295
2.5078859 0.83961475 -0.28487816 4294967295
3.8626018 0.88536507 -0.36991742 4294967295
6.969821 2.3334253 -0.51396573 4294967295
4.8586688 1.3666275 -0.41202971 4294967295
9.2191057 3.5962377 -0.63420302 4294967295
8.3022623 1.9030006 -0.49604216 4294967295
5.1373219 1.4450059 -0.27968338 4294967295
5.1934452 1.4412469 -0.15685616 4294967295
0.64361399 0.2129797 -0.18978107 4294967295
2.0493882 0.56873119 -0.27071908 4294967295
2.5108018 0.83085489 -0.28487816 4294967295
3.8695538 0.87275189 -0.37028921 4294967295
6.9779248 2.3090804 -0.51396573 4294967295
4.8787761 1.3539221 -0.41333157 4294967295
9.317255 3.5970993 -0.64008713 4294967295
5.1423349 1.4270631 -0.27968338 4294967295
8.3490601 1.8830744 -0.2988793 4294967295
5.2138696 1.4273336 -0.15732162 4294967295
0.65533668 0.21432391 -0.19301596 4294967295
2.0437067 0.55947912 -0.26970893 4294967295
2.5325863 0.8282671 -0.28702012 4294967295
3.8803525 0.86096549 -0.37103274 4294967295
7.0276589 2.2983537 -0.51703495 4294967295
4.8950076 1.3400428 -0.41430792 4294967295
9.3670425 3.5788028 -0.64264542 4294967295
8.2178841 1.823369 -0.49022824 4294967295
40.206543 13.149308 -1.9705001 4294967295
0.66341138 0.214404 -0.19517256 4294967295
1.0489203 0.28321695 -0.21729797 4294967295
1.3953013 0.45093921 -0.22813153 4294967295
2.0494781 0.55337566 -0.27021402 4294967295
2.5392463 0.82064402 -0.2874485 4294967295
3.9027903 0.85165989 -0.3728916 4294967295
7.0774055 2.2873049 -0.52010429 4294967295
4.9073534 1.3250252 -0.41495886 4294967295
9.4168177 3.5601983 -0.64520371 4294967295
8.2163973 1.7929674 -0.48976317 4294967295
40.514538 13.093654 -1.9833425 4294967295
8.2604551 1.8025818 -0.29524973 4294967295
0.66048646 0.210915 -0.19409427 4294967295
1.4119277 0.45087487 -0.23059118 4294967295
2.0513973 0.54621762 -0.27021402 4294967295
2.5420959 0.81177467 -0.2874485 4294967295
3.9057393 0.83803022 -0.3728916 4294967295
7.0967512 2.2662256 -0.52094138 4294967295
4.9119496 1.3078858 -0.41495886 4294967295
9.5301352 3.5650651 -0.65211111 4294967295
8.2343187 1.7667867 -0.49046084 4294967295
40.540974 12.946064 -1.9824121 4294967295
0.67223889 0.21208547 -0.19732918 4294967295
1.4021847 0.44237697 -0.22874644 4294967295
2.0494533 0.53804749 -0.26970893 4294967295
2.5487065 0.80409455 -0.2878769 4294967295
3.9008465 0.82275045 -0.37214807 4294967295
7.062758 2.2282381 -0.51787204 4294967295
4.9396205 1.2968096 -0.41691157 4294967295
9.5649815 3.5400975 -0.65364611 4294967295
10.319103 2.1764627 -0.61418062 4294967295
40.616394 12.814116 -1.983901 4294967295
0.66194272 0.20629911 -0.19409427 4294967295
1.4188142 0.44218346 -0.23120609 4294967295
2.0590017 0.53287798 -0.27071908 4294967295
2.5514979 0.7951923 -0.2878769 4294967295
3.9114943 0.81074452 -0.3728916 4294967295
7.1695409 2.2344382 -0.52512676 4294967295
4.9556961 1.2825541 -0.41788796 4294967295
9.6372557 3.528645 -0.6577394 4294967295
10.334458 2.1420474 -0.61464578 4294967295
40.542622 12.635394 -1.9781311 4294967295
14.335372 3.710052 -0.77603763 4294967295
0.66630453 0.20523663 -0.19517256 4294967295
2.0646024 0.52702796 -0.27122414 4294967295
2.5579216 0.78789681 -0.28830528 4294967295
3.9180646 0.79856336 -0.37326342 4294967295
7.1997929 2.2176967 -0.52680093 4294967295
4.9560595 1.265126 -0.41756251 4294967295
9.7277174 3.5252252 -0.66311181 4294967295
12.513104 2.5503681 -0.74371439 4294967295
40.565208 12.494987 -1.9772005 4294967295
14.421134 3.6812615 -0.78001517 4294967295
0.65592641 0.199661 -0.19193766 4294967295
2.0740345 0.52211642 -0.27223432 4294967295
2.5605202 0.7794106 -0.28830528 4294967295
3.936311 0.78869671 -0.37475049 4294967295
7.2376456 2.2031062 -0.52903312 4294967295
4.9795585 1.2535515 -0.41918981 4294967295
9.8633509 3.5374203 -0.67155427 4294967295
19.326481 3.8723395 -1.1478969 4294967295
40.564373 12.347609 -1.9751532 4294967295
0.66772109 0.20057996 -0.19517256 4294967295
1.430863 0.42982388 -0.23243591 4294967295
2.0797858 0.51546532 -0.27273938 4294967295
2.5709774 0.77230835 -0.28916204 4294967295
3.9469907 0.77579951 -0.37549403 4294967295
7.280066 2.1868942 -0.53154433 4294967295
4.995728 1.2381681 -0.42016616 4294967295
9.9891224 3.5412579 -0.67922914 4294967295
19.367971 3.8068655 -1.1495248 4294967295
40.666759 12.216084 -1.9779451 4294967295
0.6536454 0.19386688 -0.19085935 4294967295
1.4209868 0.42145523 -0.23059118 4294967295
2.073863 0.50632054 -0.27172923 4294967295
2.5736575 0.76332968 -0.28916204 4294967295
3.9574966 0.76352704 -0.37623763 4294967295
7.3029571 2.1660085 -0.53266042 4294967295
5.0038924 1.2216688 -0.42049164 4294967295
9.9750528 3.4971247 -0.67743832 4294967295
30.332294 5.8520646 -1.799054 4294967295
40.781937 12.095652 -1.9814814 4294967295
0.67280173 0.1969962 -0.19625087 4294967295
2.0794754 0.50000638 -0.27223432 4294967295
2.5763063 0.7543419 -0.28916204 4294967295
3.9601374 0.74970895 -0.37623763 4294967295
5.0236306 1.2079237 -0.42179343 4294967295
10.183321 3.5302761 -0.69074148 4294967295
30.41531 5.75804 -1.8027749 4294967295
0.66238391 0.19143786 -0.19301596 4294967295
2.0812082 0.49274409 -0.27223432 4294967295
2.5827448 0.74644792 -0.28959045 4294967295
3.9548986 0.73442543 -0.37549403 4294967295
5.1367135 1.4845793 -0.37389469 4294967295
5.0278172 1.1903793 -0.42179343 4294967295
10.29754 3.5296533 -0.69764894 4294967295
16.990337 4.0226097 -0.91504198 4294967295
0.67416066 0.19229436 -0.19625087 4294967295
1.4443265 0.41197279 -0.23366573 4294967295
2.0906444 0.48727813 -0.27324444 4294967295
2.589159 0.73851925 -0.29001883 4294967295
3.9731114 0.72347051 -0.37698117 4294967295
5.1495395 1.4688299 -0.37445274 4294967295
5.0552373 1.1782525 -0.4237462 4294967295
10.374068 3.5154681 -0.70199805 4294967295
31.770861 5.7852097 -1.8806813 4294967295
17.004274 3.9632814 -0.91504198 4294967295
0.68220991 0.19214638 -0.19840749 4294967295
1.4342713 0.40396664 -0.23182099 4294967295
2.0883813 0.47945514 -0.27273938 4294967295
2.5915935 0.72992975 -0.29001883 4294967295
3.9794092 0.71099257 -0.37735295 4294967295
5.1313362 1.4452558 -0.37277859 4294967295
5.0552311 1.1605911 -0.42342076 4294967295
10.431086 3.4962721 -0.70506793 4294967295
31.876348 5.6952791 -1.8857974 4294967295
5.1536789 1.4515486 -0.24940681 4294967295
0.67177534 0.18655215 -0.19517256 4294967295
2.0939953 0.47266981 -0.27324444 4294967295
2.6019158 0.72255254 -0.29087561 4294967295
3.9819889 0.69639969 -0.37735295 4294967295
5.1404448 1.4275026 -0.3730576 4294967295
5.0866742 1.1481961 -0.42569897 4294967295
10.527202 3.4856131 -0.71069622 4294967295
32.852859 5.7455516 -1.9423085 4294967295
5.170516 1.4358534 -0.24996521 4294967295
5.1939869 1.4423712 -0.12543486 4294967295
0.67239022 0.18432358 -0.19517256 4294967295
2.0916777 0.46486282 -0.27273938 4294967295
2.6042974 0.71392089 -0.29087561 4294967295
3.9842763 0.6831919 -0.37735295 4294967295
5.1451497 1.4104495 -0.3730576 4294967295
5.0865617 1.1304578 -0.42537349 4294967295
10.588018 3.4668348 -0.71402204 4294967295
8.2588844 1.8354875 -0.44339025 4294967295
0.67302948 0.18197551 -0.19517256 4294967295
2.1165462 0.46264306 -0.2757698 4294967295
2.6182909 0.70794052 -0.29216078 4294967295
3.9984193 0.67125893 -0.37846825 4294967295
5.1654496 1.396648 -0.37417373 4294967295
5.1021609 1.1152506 -0.42634988 4294967295
10.702599 3.4630365 -0.72092944 4294967295
40.267311 6.7601199 -2.3778861 4294967295
8.2106075 1.7947072 -0.44045946 4294967295
40.596329 13.135741 -1.7383639 4294967295
0.67369193 0.17950767 -0.19517256 4294967295
1.0699352 0.22976533 -0.21886691 4294967295
1.4436581 0.38466796 -0.23243591 4294967295
2.1027098 0.45155054 -0.27374953 4294967295
2.6247108 0.69936377 -0.29258916 4294967295
3.996923 0.65595537 -0.37809652 4294967295
5.1821012 1.3807898 -0.37501082 4294967295
5.117908 1.0990552 -0.42732626 4294967295
10.77986 3.4444432 -0.72527856 4294967295
40.079033 6.5775743 -2.3653281 4294967295
8.2444677 1.7704744 -0.44192484 4294967295
40.735573 13.016065 -1.7422718 4294967295
0.68176544 0.17911227 -0.19732918 4294967295
2.1120379 0.44584653 -0.27475968 4294967295
2.6155968 0.6871652 -0.29130399 4294967295
4.0070529 0.64326108 -0.37884006 4294967295
7.6761327 2.0166609 -0.55498248 4294967295
5.1412168 1.0852995 -0.42895353 4294967295
10.875565 3.4332278 -0.73090684 4294967295
40.089916 6.4357233 -2.3646305 4294967295
10.345492 2.1839104 -0.55413318 4294967295
40.780758 12.87378 -1.7422718 4294967295
0.671139 0.17406856 -0.19409427 4294967295
2.1211977 0.44082424 -0.2757698 4294967295
2.6292913 0.68194056 -0.29258916 4294967295
4.0169225 0.63190788 -0.3795836 4294967295
7.7287803 2.0045586 -0.55833083 4294967295
5.1485043 1.0699546 -0.42927897 4294967295
10.951073 3.4192715 -0.7352559 4294967295
39.869308 6.2718987 -2.3504446 4294967295
10.324925 2.1457109 -0.55266774 4294967295
40.744698 12.721785 -1.7390152 4294967295
0.67180246 0.17149012 -0.19409427 4294967295
2.122875 0.43267569 -0.2757698 4294967295
2.6280372 0.67085552 -0.29216078 4294967295
4.0193191 0.6164785 -0.3795836 4294967295
7.7518854 1.9788134 -0.55944693 4294967295
5.1682005 1.0533614 -0.43058082 4294967295
11.051866 3.404222 -0.74114001 4294967295
40.260178 6.1750593 -2.3720722 4294967295
14.452384 3.6892407 -0.69480276 4294967295
12.54844 2.5575716 -0.67115635 4294967295
0.66866159 0.16820419 -0.19301596 4294967295
1.4680536 0.36929405 -0.23551045 4294967295
2.1321542 0.42682004 -0.27677995 4294967295
2.6457906 0.66555798 -0.29387432 4294967295
4.0253859 0.60303372 -0.37995538 4294967295
7.7897034 1.9595274 -0.56167912 4294967295
5.1796646 1.0368783 -0.43123174 4294967295
11.124786 3.384208 -0.7452333 4294967295
39.886574 5.9753151 -2.3488166 4294967295
19.368624 3.87726 -1.0352052 4294967295
0.68040204 0.16888666 -0.19625087 4294967295
1.4576981 0.36182398 -0.23366573 4294967295
2.1179116 0.41705343 -0.27475968 4294967295
2.6594477 0.66011739 -0.29515949 4294967295
4.0351415 0.59154075 -0.38069892 4294967295
7.8384213 1.9456215 -0.56474841 4294967295
5.1868081 1.0213722 -0.43155721 4294967295
11.158299 3.3561428 -0.7467683 4294967295
41.126007 6.0289612 -2.4206765 4294967295
19.396387 3.819484 -1.0360427 4294967295
0.67350417 0.16468062 -0.19409427 4294967295
2.1310425 0.41191655 -0.27627489 4294967295
2.6655996 0.65177411 -0.2955879 4294967295
4.0332389 0.57688671 -0.38032714 4294967295
7.8645463 1.9229848 -0.56614351 4294967295
5.2059994 1.0062857 -0.43285903 4294967295
5.1468239 1.5284661 -0.34409159 4294967295
41.182381 5.8904443 -2.4227693 4294967295
0.67038631 0.16119298 -0.19301596 4294967295
1.0944989 0.20720336 -0.22278926 4294967295
2.1443043 0.40594563 -0.2777901 4294967295
2.6719489 0.64246452 -0.29601628 4294967295
4.0314798 0.56084824 -0.37995538 4294967295
7.9261866 1.905835 -0.57004988 4294967295
5.225493 0.98925608 -0.43416089 4294967295
41.248199 5.7383347 -2.4253278 4294967295
0.67463726 0.15997498 -0.19409427 4294967295
1.4729446 0.3492755 -0.23551045 4294967295
2.1377668 0.39775592 -0.27677995 4294967295
2.6778235 0.63498533 -0.29644465 4294967295
4.0411143 0.54925376 -0.38069892 4294967295
7.978725 1.8919743 -0.57339823 4294967295
5.2403331 0.97502369 -0.43513721 4294967295
5.1266928 1.4836226 -0.34204495 4294967295
41.293724 5.6124945 -2.4269555 4294967295
17.063803 4.0462952 -0.81690043 4294967295
0.68644476 0.16024622 -0.19732918 4294967295
1.4626077 0.34143659 -0.23366573 4294967295
2.1469493 0.39171612 -0.2777901 4294967295
2.6684048 0.6229223 -0.29515949 4294967295
4.0587997 0.53723556 -0.38218603 4294967295
8.0241385 1.8731846 -0.57618845 4294967295
5.2633142 0.96030456 -0.43676451 4294967295
5.1318398 1.4657191 -0.34204495 4294967295
41.313061 5.4683275 -2.4269555 4294967295
17.054476 3.9812601 -0.81578368 4294967295
5.1304197 1.4653136 -0.2173769 4294967295
0.67949182 0.1561238 -0.19517256 4294967295
2.1561158 0.38561615 -0.27880025 4294967295
2.6744394 0.61449403 -0.2955879 4294967295
4.0488009 0.52153695 -0.38107073 4294967295
8.0578508 1.8514163 -0.57814163 4294967295
5.2705593 0.94262683 -0.43708998 4294967295
5.1292405 1.4456296 -0.34153327 4294967295
41.383385 5.3307052 -2.4299786 4294967295
5.1547375 1.4528157 -0.21819104 4294967295
0.68754685 0.1554497 -0.19732918 4294967295
2.1535401 0.37740192 -0.27829516 4294967295
2.6843264 0.60690808 -0.29644465 4294967295
4.0584998 0.50838965 -0.38181427 4294967295
8.0992928 1.8311954 -0.58065289 4294967295
5.2816715 0.92559826 -0.43774089 4294967295
5.1419482 1.4298538 -0.34204495 4294967295
41.413624 5.187695 -2.4306765 4294967295
0.68059158 0.15125747 -0.19517256 4294967295
1.0824519 0.18561032 -0.21965137 4294967295
1.4738767 0.3275604 -0.23489554 4294967295
2.1549089 0.36950681 -0.27829516 4294967295
2.6826503 0.59620321 -0.29601628 4294967295
4.0563817 0.49303147 -0.38144249 4294967295
8.1098452 1.8023652 -0.5809319 4294967295
5.3086047 0.91027772 -0.43969366 4294967295
5.1587029 1.4141653 -0.34281245 4294967295
41.483891 5.0421443 -2.4336996 4294967295
8.2417593 1.8316823 -0.39328107 4294967295
0.68487853 0.1497032 -0.19625087 4294967295
2.1522725 0.36132494 -0.2777901 4294967295
2.6963711 0.58938241 -0.29730141 4294967295
4.0699444 0.48026815 -0.38255781 4294967295
8.1277828 1.7765998 -0.58176899 4294967295
5.3156824 0.89240026 -0.44001913 4294967295
20.712946 2.4442027 -1.2146405 4294967295
8.2324896 1.7994869 -0.39253658 4294967295
0.67030799 0.14419143 -0.19193766 4294967295
2.1652048 0.35611919 -0.27930534 4294967295
2.6944222 0.57960308 -0.29687303 4294967295
4.0754714 0.46722552 -0.38292959 4294967295
8.1219244 1.7471251 -0.5809319 4294967295
5.3186116 0.8747716 -0.44001913 4294967295
12.029585 3.2098253 -0.79793435 4294967295
20.701101 2.3732429 -1.2134777 4294967295
10.402506 2.2377059 -0.49564955 4294967295
0.68590689 0.14491852 -0.19625087 4294967295
1.0959542 0.17613222 -0.2220048 4294967295
2.1625779 0.34755072 -0.27880025 4294967295
2.7120929 0.5730114 -0.29858661 4294967295
4.0811148 0.45272309 -0.38330135 4294967295
8.1360826 1.7189928 -0.58148998 4294967295
5.3375268 0.8578009 -0.44132093 4294967295
12.087596 3.1778893 -0.80100429 4294967295
41.546326 4.6087847 -2.4343972 4294967295
0.68635881 0.14276277 -0.19625087 4294967295
2.1636593 0.34075451 -0.27880025 4294967295
2.6983051 0.561248 -0.29687303 4294967295
4.1023154 0.44203183 -0.38516024 4294967295
8.1805096 1.7015477 -0.58428025 4294967295
5.355948 0.84350777 -0.44262275 4294967295
12.147751 3.1529331 -0.80433005 4294967295
41.580452 4.4803677 -2.43556 4294967295
0.69065154 0.14101693 -0.19732918 4294967295
2.1766591 0.33463126 -0.28031546 4294967295
2.7081373 0.55294633 -0.29772982 4294967295
4.0920243 0.42575759 -0.38404489 4294967295
8.2453346 1.6835289 -0.58846563 4294967295
5.3629446 0.82447863 -0.44294822 4294967295
12.217237 3.1232212 -0.80816752 4294967295
41.608513 4.3291874 -2.4362578 4294967295
12.543327 2.5610912 -0.59634292 4294967295
0.69113964 0.13860506 -0.19732918 4294967295
2.162118 0.32467368 -0.27829516 4294967295
2.71785 0.54505301 -0.29858661 4294967295
4.1053739 0.41266498 -0.38516024 4294967295
8.5641508 1.7175033 -0.61078769 4294967295
5.3736749 0.80693597 -0.44359913 4294967295
12.266773 3.0903044 -0.81072587 4294967295
41.655155 4.1871033 -2.438118 4294967295
19.384598 3.8874972 -0.92094404 4294967295
0.68781614 0.13556765 -0.19625087 4294967295
2.7196422 0.53603786 -0.29858661 4294967295
4.1067195 0.39904964 -0.38516024 4294967295
8.6285219 1.7006702 -0.61497307 4294967295
5.3802657 0.78969187 -0.44392461 4294967295
12.37768 3.0746322 -0.81737745 4294967295
41.660858 4.0481825 -2.4376531 4294967295
19.424824 3.8286066 -0.92224693 4294967295
0.70343608 0.13597001 -0.20056407 4294967295
1.4862787 0.28728881 -0.23551045 4294967295
2.7333028 0.52833116 -0.29987177 4294967295
4.1121202 0.38436666 -0.38553202 4294967295
8.6738749 1.6766083 -0.61776328 4294967295
5.4028568 0.77279055 -0.4455519 4294967295
12.46254 3.0472622 -0.82223821 4294967295
41.703251 3.8980715 -2.439281 4294967295
0.68876868 0.13064228 -0.19625087 4294967295
2.1850493 0.30475566 -0.28082055 4294967295
2.7351305 0.51878625 -0.29987177 4294967295
4.1213698 0.37072289 -0.38627556 4294967295
8.7031965 1.6507798 -0.61943746 4294967295
5.417367 0.75557709 -0.44652829 4294967295
12.523552 3.0158875 -0.82556403 4294967295
41.720577 3.7528234 -2.4395134 4294967295
0.68164665 0.12682818 -0.19409427 4294967295
2.174304 0.29552376 -0.27930534 4294967295
2.7369249 0.50923628 -0.29987177 4294967295
4.1305747 0.35702112 -0.38701913 4294967295
8.7481356 1.6276909 -0.62222773 4294967295
5.4318228 0.73827422 -0.44750464 4294967295
12.623337 2.99334 -0.83144814 4294967295
41.753315 3.6088963 -2.4406765 4294967295
0.68208522 0.12444782 -0.19409427 4294967295
2.2028582 0.29157636 -0.28284082 4294967295
2.7386858 0.49967876 -0.29987177 4294967295
4.1317959 0.34259945 -0.38701913 4294967295
8.7969446 1.6050203 -0.62529707 4294967295
5.4343667 0.71930766 -0.44750464 4294967295
12.688131 2.9619591 -0.83502972 4294967295
41.785557 3.4647667 -2.4418392 4294967295
0.67872369 0.12138814 -0.19301596 4294967295
1.4940356 0.26720479 -0.23612535 4294967295
2.1959915 0.28287178 -0.2818307 4294967295
2.7560725 0.49291715 -0.30158532 4294967295
4.1488471 0.3294366 -0.38850623 4294967295
8.8535557 1.5834378 -0.62892437 4294967295
5.4447517 0.70135367 -0.44815555 4294967295
41.797394 3.3188961 -2.4418392 4294967295
0.68673146 0.12034818 -0.19517256 4294967295
1.4910662 0.26130605 -0.23551045 4294967295
2.1930285 0.27471185 -0.28132561 4294967295
2.7460244 0.4812347 -0.30030015 4294967295
4.1618867 0.3158575 -0.38962159 4294967295
8.9101238 1.5614796 -0.63255173 4294967295
5.4590354 0.68383133 -0.44913194 4294967295
8.1919985 1.8521601 -0.53826672 4294967295
41.840584 3.1754017 -2.4436994 4294967295
0.69471937 0.1193747 -0.19732918 4294967295
2.1939273 0.26743743 -0.28132561 4294967295
2.7476051 0.4721252 -0.30030015 4294967295
4.1430497 0.30061221 -0.3877627 4294967295
8.9703093 1.5413821 -0.6364581 4294967295
5.4652295 0.6662057 -0.44945738 4294967295
8.1864061 1.8223799 -0.53749919 4294967295
41.858849 3.0372026 -2.4441645 4294967295
0.6951319 0.11694875 -0.19732918 4294967295
1.5122987 0.25442863 -0.238585 4294967295
2.2027287 0.26070973 -0.28233576 4294967295
2.7649243 0.46516991 -0.3020137 4294967295
4.1440735 0.28614733 -0.3877627 4294967295
9.0346603 1.5199882 -0.64064342 4294967295
5.4952364 0.65040308 -0.45173556 4294967295
8.1849194 1.7920833 -0.5369876 4294967295
41.893097 2.8927088 -2.44556 4294967295
8.2573795 1.8079485 -0.34438363 4294967295
0.68793434 0.11327012 -0.19517256 4294967295
2.199683 0.25256699 -0.2818307 4294967295
2.7626069 0.45487016 -0.30158532 4294967295
4.1529951 0.27220184 -0.38850623 4294967295
9.0635328 1.4923335 -0.64231759 4294967295
5.5093546 0.6325826 -0.45271194 4294967295
8.2223434 1.7702246 -0.53903419 4294967295
41.910908 2.7469876 -2.4460251 4294967295
